# .PCD v0.7 - Point Cloud Data file format
VERSION 0.7
FIELDS x y z rgb
SIZE 4 4 4 4
TYPE F F F U
COUNT 1 1 1 1
WIDTH 1095
HEIGHT 1
VIEWPOINT 0 0 0 1 0 0 0
POINTS 1095
DATA ascii
-15.249302 70.175591 -0.18587647 4278190335
-15.146769 70.057243 -0.18356499 4278190335
-15.046951 69.933441 -0.17930202 4278190335
-14.948952 69.810257 -0.17635103 4278190335
-14.851374 69.683891 -0.17312589 4278190335
-14.755332 69.558838 -0.16946849 4278190335
-14.661347 69.429543 -0.16590852 4278190335
-14.568591 69.300186 -0.16223224 4278190335
-14.477682 69.16642 -0.15907961 4278190335
-14.389774 69.031525 -0.1550488 4278190335
-14.304638 68.892899 -0.15137078 4278190335
-14.220433 68.755241 -0.14812671 4278190335
-14.138097 68.614655 -0.14436656 4278190335
-14.056984 68.473671 -0.14201607 4278190335
-13.978152 68.330254 -0.1382575 4278190335
-13.899574 68.186104 -0.13592057 4278190335
-13.822728 68.039032 -0.13267724 4278190335
-13.748965 67.890823 -0.12986648 4278190335
-13.679503 67.739685 -0.1249987 4278190335
-13.611873 67.58725 -0.12427187 4278190335
-13.546799 67.432922 -0.12180409 4278190335
-13.48236 67.278152 -0.11959496 4278190335
-13.421331 67.121925 -0.11735728 4278190335
-13.361702 66.96257 -0.11585199 4278190335
-13.301169 66.804283 -0.11428338 4278190335
-13.244458 66.644379 -0.11290411 4278190335
-13.187948 66.484016 -0.11092971 4278190335
-13.133519 66.322296 -0.1100432 4278190335
-13.081964 66.158241 -0.10719601 4278190335
-13.031238 65.992989 -0.10675352 4278190335
-12.984434 65.824829 -0.10489068 4278190335
-12.937026 65.65654 -0.10391451 4278190335
-12.893219 65.485794 -0.10224184 4278190335
-12.850161 65.313477 -0.10207987 4278190335
-12.810663 65.138206 -0.10154129 4278190335
-12.772929 64.961723 -0.10060157 4278190335
-12.738399 64.782516 -0.10017876 4278190335
-12.705202 64.60215 -0.099860385 4278190335
-12.67547 64.419884 -0.099371202 4278190335
-12.647393 64.23645 -0.099809863 4278190335
-12.622299 64.051239 -0.099309266 4278190335
-12.598067 63.86602 -0.10048825 4278190335
-12.571987 63.679924 -0.099435367 4278190335
-12.549234 63.493034 -0.10180643 4278190335
-12.52767 63.303162 -0.10302477 4278190335
-12.508374 63.11314 -0.10352731 4278190335
-12.491008 62.921349 -0.10357741 4278190335
-12.477152 62.73016 -0.10566743 4278190335
-12.466616 62.536339 -0.10522205 4278190335
-12.456353 62.342808 -0.10756525 4278190335
-12.448678 62.149071 -0.10706931 4278190335
-12.44092 61.95388 -0.1100003 4278190335
-12.435602 61.761086 -0.11015378 4278190335
-12.430639 61.56797 -0.11368037 4278190335
-12.428101 61.376087 -0.11480162 4278190335
-12.423863 61.184299 -0.11739609 4278190335
-12.423649 60.991928 -0.11950255 4278190335
-12.422137 60.800674 -0.12141715 4278190335
-12.424293 60.610073 -0.11964746 4278190335
-12.423933 60.42091 -0.12368158 4278190335
-12.420333 60.233555 -0.12104756 4278190335
-12.414417 60.046688 -0.12685221 4278190335
-12.404475 59.859627 -0.1291606 4278190335
-12.396249 59.673717 -0.12989141 4278190335
-12.39031 59.487598 -0.12713055 4278190335
-12.384215 59.30299 -0.13265257 4278190335
-12.383257 59.11602 -0.13492545 4278190335
-12.382118 58.930527 -0.13663922 4278190335
-12.38038 58.744213 -0.13573679 4278190335
-12.378474 58.557869 -0.14041965 4278190335
-12.377766 58.37101 -0.14187241 4278190335
-12.376373 58.185738 -0.14393778 4278190335
-12.376744 57.99942 -0.14228979 4278190335
-12.37501 57.814556 -0.14640114 4278190335
-12.374465 57.629108 -0.14584374 4278190335
-12.373111 57.444283 -0.1491842 4278190335
-12.374313 57.25882 -0.14964452 4278190335
-12.376523 57.074383 -0.15205304 4278190335
-12.383573 56.889416 -0.15333571 4278190335
-12.390815 56.705677 -0.15549308 4278190335
-12.397433 56.522278 -0.15625161 4278190335
-12.402176 56.339321 -0.16006759 4278190335
-12.403442 56.158314 -0.161428 4278190335
-12.404831 55.976799 -0.1652789 4278190335
-12.407613 55.796474 -0.16800387 4278190335
-12.411143 55.618492 -0.17008343 4278190335
-12.415051 55.441822 -0.16933149 4278190335
-12.419348 55.267544 -0.17366995 4278190335
-12.425627 55.095566 -0.17389931 4278190335
-12.433731 54.92696 -0.17843352 4278190335
-12.444386 54.760101 -0.17967263 4278190335
-12.455879 54.596424 -0.18249001 4278190335
-12.469213 54.432877 -0.18402784 4278190335
-12.482332 54.273956 -0.18605483 4278190335
-12.492304 54.114929 -0.18574518 4278190335
-12.501611 53.958706 -0.18891992 4278190335
-12.510677 53.802895 -0.19004773 4278190335
-12.521839 53.651115 -0.19206673 4278190335
-12.535719 53.499439 -0.19201095 4278190335
-12.549402 53.351082 -0.19480054 4278190335
-12.563221 53.202488 -0.19567849 4278190335
-12.575094 53.057331 -0.19810623 4278190335
-12.5891 52.912086 -0.19998674 4278190335
-12.60336 52.77005 -0.20103478 4278190335
-12.620811 52.627548 -0.20114118 4278190335
-12.636814 52.486248 -0.20389555 4278190335
-12.653184 52.34306 -0.20716381 4278190335
-12.669909 52.202431 -0.20695922 4278190335
-12.684904 52.062489 -0.20599197 4278190335
-12.69997 51.924461 -0.20993751 4278190335
-12.715891 51.786335 -0.2113926 4278190335
-12.732153 51.647724 -0.21421519 4278190335
-12.749756 51.509586 -0.216325 4278190335
-12.766359 51.373165 -0.21639125 4278190335
-12.784007 51.239414 -0.21211144 4278190335
-12.801417 51.105549 -0.21787445 4278190335
-12.820963 50.972084 -0.21967863 4278190335
-12.842538 50.839653 -0.22045754 4278190335
-12.865291 50.707321 -0.22101653 4278190335
-12.888593 50.575916 -0.22291955 4278190335
-12.90908 50.444092 -0.22513992 4278190335
-12.928364 50.313282 -0.22524559 4278190335
-12.941599 50.180954 -0.22827655 4278190335
-12.957345 50.051754 -0.22762631 4278190335
-12.977045 49.921753 -0.22899416 4278190335
-12.998611 49.792877 -0.23048344 4278190335
-13.020987 49.663246 -0.23280282 4278190335
-13.04243 49.536003 -0.2326653 4278190335
-13.058131 49.407543 -0.23338312 4278190335
-13.074482 49.280052 -0.23454697 4278190335
-13.089276 49.15213 -0.23605135 4278190335
-13.103867 49.02557 -0.23699781 4278190335
-13.120363 48.898659 -0.23795906 4278190335
-13.136244 48.771519 -0.23977363 4278190335
-13.152399 48.644382 -0.24229087 4278190335
-13.166733 48.517197 -0.24258058 4278190335
-13.179111 48.39043 -0.24296527 4278190335
-13.191422 48.262142 -0.24579497 4278190335
-13.202952 48.134071 -0.24974863 4278190335
-13.215394 48.006306 -0.24918096 4278190335
-13.229248 47.878666 -0.25007313 4278190335
-13.243427 47.752098 -0.25205216 4278190335
-13.258357 47.624283 -0.25302348 4278190335
-13.273805 47.497234 -0.2551814 4278190335
-13.287868 47.369827 -0.25641617 4278190335
-13.302453 47.242767 -0.25797871 4278190335
-13.315263 47.115749 -0.25689721 4278190335
-13.330042 46.988991 -0.26047182 4278190335
-13.3475 46.862587 -0.2604208 4278190335
-13.364838 46.736084 -0.26288831 4278190335
-13.379797 46.608704 -0.26420593 4278190335
-13.391045 46.480042 -0.26575765 4278190335
-13.39904 46.350609 -0.26805794 4278190335
-13.40817 46.219631 -0.26902476 4278190335
-13.420113 46.088882 -0.27176777 4278190335
-13.435361 45.958553 -0.27245116 4278190335
-13.454871 45.828949 -0.27347541 4278190335
-13.474051 45.698917 -0.27496856 4278190335
-13.491886 45.568844 -0.27449313 4278190335
-13.508223 45.438572 -0.27681667 4278190335
-13.523607 45.307503 -0.27777931 4278190335
-13.537334 45.175278 -0.27942047 4278190335
-13.551396 45.041679 -0.2798377 4278190335
-13.565016 44.908409 -0.2810007 4278190335
-13.580653 44.77412 -0.27993664 4278190335
-13.597642 44.638588 -0.28172144 4278190335
-13.614987 44.501976 -0.28222653 4278190335
-13.630477 44.363235 -0.28300244 4278190335
-13.644556 44.223248 -0.28481296 4278190335
-13.658863 44.081612 -0.28486553 4278190335
-13.676399 43.939198 -0.28651598 4278190335
-13.696563 43.794601 -0.28739539 4278190335
-13.720119 43.649784 -0.28986466 4278190335
-13.743465 43.502117 -0.28918859 4278190335
-13.765691 43.354958 -0.28754011 4278190335
-13.786562 43.204811 -0.28997114 4278190335
-13.803946 43.054981 -0.28988907 4278190335
-13.819904 42.902122 -0.29134056 4278190335
-13.834085 42.748482 -0.29376754 4278190335
-13.849604 42.591736 -0.29328665 4278190335
-13.865344 42.434555 -0.29565021 4278190335
-13.88244 42.276482 -0.29455993 4278190335
-13.901051 42.116295 -0.2956422 4278190335
-13.92162 41.955215 -0.29530242 4278190335
-13.944466 41.79388 -0.29353422 4278190335
-13.967486 41.631763 -0.29583794 4278190335
-13.992918 41.46809 -0.29845059 4278190335
-14.017711 41.301022 -0.29812846 4278190335
-14.039758 41.133125 -0.29923669 4278190335
-14.061584 40.962788 -0.30032235 4278190335
-14.081453 40.791916 -0.30050233 4278190335
-14.102391 40.618866 -0.30121684 4278190335
-14.124927 40.444603 -0.30246103 4278190335
-14.148454 40.267727 -0.3029637 4278190335
-14.174894 40.089802 -0.30559766 4278190335
-14.201603 39.908936 -0.30600673 4278190335
-14.228476 39.726704 -0.30859783 4278190335
-14.25511 39.542854 -0.30798629 4278190335
-14.280922 39.358154 -0.30767125 4278190335
-14.305061 39.169239 -0.31066662 4278190335
-14.326066 38.979622 -0.31504712 4278190335
-14.349053 38.786095 -0.31415722 4278190335
-14.373729 38.593452 -0.31577989 4278190335
-14.40137 38.397491 -0.31715813 4278190335
-14.431983 38.201679 -0.31755579 4278190335
-14.463363 38.002556 -0.32070869 4278190335
-14.493361 37.802879 -0.32139805 4278190335
-14.522536 37.601044 -0.32362691 4278190335
-14.552103 37.398972 -0.32391226 4278190335
-14.583271 37.193607 -0.32776448 4278190335
-14.612532 36.986958 -0.33011761 4278190335
-14.640152 36.776539 -0.33215705 4278190335
-14.666656 36.5644 -0.3362228 4278190335
-14.693261 36.348495 -0.33628899 4278190335
-14.723894 36.133476 -0.3384994 4278190335
-14.756731 35.915329 -0.34076363 4278190335
-14.788765 35.696156 -0.34302002 4278190335
-14.819854 35.473625 -0.34549859 4278190335
-14.848928 35.25209 -0.34784505 4278190335
-14.876957 35.027637 -0.34941623 4278190335
-14.905816 34.803806 -0.35110024 4278190335
-14.934163 34.577553 -0.35244131 4278190335
-14.959395 34.34964 -0.3548193 4278190335
-14.988401 34.119591 -0.35912412 4278190335
-15.020704 33.890171 -0.36456385 4278190335
-15.050903 33.661579 -0.36585304 4278190335
-15.081683 33.434452 -0.36587355 4278190335
-15.112344 33.206909 -0.36945757 4278190335
-15.139414 32.980724 -0.36946875 4278190335
-15.166261 32.752083 -0.37564421 4278190335
-15.193659 32.521545 -0.38418886 4278190335
-15.219397 32.289921 -0.38319862 4278190335
-15.245946 32.060753 -0.38334391 4278190335
-15.276691 31.831526 -0.39092207 4278190335
-15.310872 31.601536 -0.39829859 4278190335
-15.347667 31.372156 -0.39938989 4278190335
-15.385984 31.144503 -0.40032998 4278190335
-15.422501 30.918289 -0.40727794 4278190335
-15.456357 30.69536 -0.4102262 4278190335
-15.489705 30.473545 -0.41497582 4278190335
-15.523819 30.252821 -0.41877097 4278190335
-15.55818 30.033714 -0.42292383 4278190335
-15.593371 29.81443 -0.42536491 4278190335
-15.627411 29.597504 -0.42951709 4278190335
-15.665135 29.380903 -0.43160018 4278190335
-15.702459 29.167656 -0.43623748 4278190335
-15.741031 28.955069 -0.44016072 4278190335
-15.777369 28.744175 -0.44464752 4278190335
-15.806801 28.532095 -0.44969231 4278190335
-15.836008 28.322493 -0.44980592 4278190335
-15.868013 28.114241 -0.44756517 4278190335
-15.902354 27.907207 -0.45403558 4278190335
-15.940302 27.702248 -0.45614156 4278190335
-15.977957 27.500448 -0.45957631 4278190335
-16.011854 27.297745 -0.46195832 4278190335
-16.044619 27.096159 -0.46439582 4278190335
-16.073864 26.894327 -0.46722347 4278190335
-16.102545 26.694235 -0.47322401 4278190335
-16.129622 26.491899 -0.48156807 4278190335
-16.156088 26.292648 -0.47958878 4278190335
-16.183706 26.093737 -0.47840744 4278190335
-16.213362 25.898523 -0.4857704 4278190335
-16.244205 25.701881 -0.49250013 4278190335
-16.272291 25.507605 -0.49176851 4278190335
-16.29961 25.312473 -0.49414751 4278190335
-16.326464 25.119415 -0.49845868 4278190335
-16.351664 24.925236 -0.50254744 4278190335
-16.373367 24.733524 -0.50194603 4278190335
-16.39436 24.5434 -0.50208402 4278190335
-16.417261 24.35532 -0.50447726 4278190335
-16.445326 24.168436 -0.5071798 4278190335
-16.473314 23.983295 -0.50923526 4278190335
-16.504875 23.798054 -0.51365858 4278190335
-16.536528 23.613943 -0.51799482 4278190335
-16.563726 23.428108 -0.52779531 4278190335
-16.586872 23.244524 -0.52501327 4278190335
-16.604998 23.062443 -0.52390987 4278190335
-16.62183 22.880123 -0.53071892 4278190335
-16.640541 22.69906 -0.53461444 4278190335
-16.658382 22.519979 -0.53496772 4278190335
-16.680229 22.342367 -0.53295243 4278190335
-16.705685 22.166075 -0.53804833 4278190335
-16.731945 21.990555 -0.5419808 4278190335
-16.754248 21.81628 -0.54151785 4278190335
-16.771769 21.642118 -0.54041922 4278190335
-16.790169 21.46756 -0.54541475 4278190335
-16.807976 21.292416 -0.55402499 4278190335
-16.825487 21.117743 -0.55052072 4278190335
-16.846235 20.943771 -0.55204004 4278190335
-16.870531 20.770376 -0.55653179 4278190335
-16.897507 20.595249 -0.56275237 4278190335
-16.9217 20.419254 -0.56055051 4278190335
-16.941801 20.246832 -0.5535236 4278190335
-16.960615 20.07259 -0.56191283 4278190335
-16.976137 19.899265 -0.56623858 4278190335
-16.989365 19.722719 -0.5656026 4278190335
-17.000786 19.546143 -0.57188582 4278190335
-17.013802 19.368364 -0.56984919 4278190335
-17.029381 19.191875 -0.57209849 4278190335
-17.04397 19.015562 -0.57200319 4278190335
-17.060101 18.84078 -0.56970495 4278190335
-17.074745 18.665579 -0.5740245 4278190335
-17.090286 18.489365 -0.57674038 4278190335
-17.104338 18.313513 -0.57674563 4278190335
-17.114239 18.137354 -0.57801914 4278190335
-17.121901 17.961035 -0.58028847 4278190335
-17.127094 17.783703 -0.58420241 4278190335
-17.133829 17.606634 -0.58490467 4278190335
-17.142248 17.428097 -0.5902186 4278190335
-17.149582 17.251438 -0.58790231 4278190335
-17.160805 17.07592 -0.58567309 4278190335
-17.169819 16.899233 -0.58979511 4278190335
-17.179747 16.722424 -0.59393507 4278190335
-17.183865 16.544439 -0.59239107 4278190335
-17.18335 16.368605 -0.59199619 4278190335
-17.182024 16.193144 -0.59475261 4278190335
-17.182592 16.020666 -0.59573305 4278190335
-17.180868 15.849025 -0.59761208 4278190335
-17.185228 15.67938 -0.60229558 4278190335
-17.187696 15.509922 -0.6004892 4278190335
-17.193089 15.342416 -0.59958756 4278190335
-17.195421 15.175947 -0.60169965 4278190335
-17.194132 15.009321 -0.60456944 4278190335
-17.191118 14.844656 -0.60377359 4278190335
-17.186277 14.681265 -0.60333377 4278190335
-17.178732 14.519362 -0.60568577 4278190335
-17.170834 14.357688 -0.60897619 4278190335
-17.162767 14.198495 -0.60784656 4278190335
-17.156174 14.039586 -0.60840696 4278190335
-17.147129 13.882677 -0.60985488 4278190335
-17.137159 13.724917 -0.61310726 4278190335
-17.126926 13.567095 -0.61354244 4278190335
-17.114944 13.410417 -0.61577964 4278190335
-17.10203 13.255641 -0.6155346 4278190335
-17.090925 13.102759 -0.61409432 4278190335
-17.078127 12.950223 -0.61685389 4278190335
-17.062593 12.798469 -0.62115657 4278190335
-17.045181 12.646973 -0.6188702 4278190335
-17.024136 12.497972 -0.61664575 4278190335
-17.005775 12.349275 -0.61848086 4278190335
-16.990395 12.202558 -0.6172387 4278190335
-16.973774 12.056397 -0.61848921 4278190335
-16.956785 11.911779 -0.61955303 4278190335
-16.940475 11.767558 -0.62026066 4278190335
-16.92193 11.625048 -0.62053585 4278190335
-16.901857 11.484257 -0.62088799 4278190335
-16.879023 11.343997 -0.62075204 4278190335
-16.855354 11.203905 -0.62130773 4278190335
-16.830606 11.064363 -0.62293261 4278190335
-16.805086 10.925161 -0.6219694 4278190335
-16.782309 10.786299 -0.62313867 4278190335
-16.758503 10.64955 -0.6224283 4278190335
-16.73654 10.512078 -0.62241864 4278190335
-16.713213 10.376284 -0.6222859 4278190335
-16.688473 10.241004 -0.62171483 4278190335
-16.662561 10.108039 -0.6204052 4278190335
-16.637577 9.9735947 -0.61729097 4278190335
-16.610645 9.8382883 -0.61903989 4278190335
-16.582874 9.7012358 -0.62226456 4278190335
-16.55518 9.5649443 -0.61816615 4278190335
-16.526785 9.4282293 -0.61636728 4278190335
-16.497921 9.2903423 -0.61747581 4278190335
-16.469229 9.1495018 -0.61983097 4278190335
-16.437126 9.0089884 -0.61719471 4278190335
-16.403008 8.8680267 -0.61677396 4278190335
-16.368193 8.7256269 -0.6155355 4278190335
-16.33416 8.582756 -0.61487389 4278190335
-16.296543 8.4382915 -0.61441636 4278190335
-16.259768 8.2937374 -0.61604732 4278190335
-16.219706 8.1475935 -0.61357373 4278190335
-16.177393 8.0022259 -0.61309385 4278190335
-16.132353 7.8548832 -0.61221707 4278190335
-16.088579 7.7087374 -0.61159605 4278190335
-16.039015 7.5609684 -0.60941356 4278190335
-15.989404 7.4138293 -0.60714138 4278190335
-15.936059 7.2636924 -0.60678893 4278190335
-15.885151 7.113379 -0.60630846 4278190335
-15.83106 6.9620156 -0.60528362 4278190335
-15.778214 6.8109522 -0.60313457 4278190335
-15.722281 6.6589661 -0.60175359 4278190335
-15.662376 6.5080256 -0.60144073 4278190335
-15.597756 6.3548055 -0.60055602 4278190335
-15.529697 6.201436 -0.60480833 4278190335
-15.458521 6.0469685 -0.59970361 4278190335
-15.388091 5.8931937 -0.59838116 4278190335
-15.31266 5.7384019 -0.59694159 4278190335
-15.235618 5.583344 -0.59560156 4278190335
-15.154822 5.427916 -0.59102857 4278190335
-15.070446 5.275279 -0.58128792 4278190335
-14.979261 5.1211686 -0.58410937 4278190335
-14.884227 4.9688106 -0.58271974 4278190335
-14.785434 4.815403 -0.57702917 4278190335
-14.687116 4.6627069 -0.57379079 4278190335
-14.584538 4.5072441 -0.57055616 4278190335
-14.476447 4.3537641 -0.57001036 4278190335
-14.362386 4.1991081 -0.56647497 4278190335
-14.242417 4.0473499 -0.56590492 4278190335
-14.122383 3.8930812 -0.55897039 4278190335
-14.003845 3.7412357 -0.55115891 4278190335
-13.882571 3.5877962 -0.55051017 4278190335
-13.758344 3.4360874 -0.54598147 4278190335
-13.628506 3.2834511 -0.54282683 4278190335
-13.49324 3.135035 -0.539572 4278190335
-13.354815 2.9858935 -0.53542 4278190335
-13.213478 2.8390222 -0.53167832 4278190335
-13.066962 2.6941364 -0.52463698 4278190335
-12.914971 2.5543938 -0.51393592 4278190335
-12.757897 2.4145768 -0.5098477 4278190335
-12.597451 2.2796998 -0.5012514 4278190335
-12.437312 2.1427441 -0.49747059 4278190335
-12.277014 2.0071619 -0.4905363 4278190335
-12.117495 1.8716944 -0.48351687 4278190335
-11.950362 1.741497 -0.4759672 4278190335
-11.78094 1.6148425 -0.46926644 4278190335
-11.60245 1.4966239 -0.4626669 4278190335
-11.423024 1.3822576 -0.45268324 4278190335
-11.239073 1.2732937 -0.44260573 4278190335
-11.056032 1.1653768 -0.43624204 4278190335
-10.877611 1.0556972 -0.43096566 4278190335
-10.701112 0.94974405 -0.42500663 4278190335
-10.528746 0.84131175 -0.42184827 4278190335
-10.354039 0.73766524 -0.41263047 4278190335
-10.176654 0.64314109 -0.40608343 4278190335
-9.9994717 0.55431998 -0.39830431 4278190335
-9.8191233 0.47430593 -0.38976461 4278190335
-9.6353292 0.39845312 -0.3835243 4278190335
-9.4507303 0.32255358 -0.38169163 4278190335
-9.2671947 0.24962121 -0.37027961 4278190335
-9.0844965 0.1788149 -0.36375973 4278190335
-8.9065008 0.10731006 -0.35713494 4278190335
-8.731287 0.033432715 -0.34771204 4278190335
-8.5542974 -0.039698325 -0.34253252 4278190335
-8.3736992 -0.10560873 -0.33770666 4278190335
-8.1955261 -0.16865513 -0.32763317 4278190335
-8.0136881 -0.22087976 -0.3172361 4278190335
-7.8317571 -0.27033305 -0.31137601 4278190335
-7.6458435 -0.31508097 -0.30454099 4278190335
-7.4632244 -0.36113691 -0.29541972 4278190335
-7.2818303 -0.40744415 -0.2872057 4278190335
-7.1015158 -0.45332047 -0.27880216 4278190335
-6.9195867 -0.49229255 -0.26989767 4278190335
-6.7377911 -0.52836925 -0.26354304 4278190335
-6.5534577 -0.56062675 -0.25969264 4278190335
-6.3708286 -0.59251404 -0.24799812 4278190335
-6.18683 -0.61876559 -0.23896895 4278190335
-6.0029459 -0.64212984 -0.23109561 4278190335
-5.8164239 -0.65705317 -0.22449416 4278190335
-5.6296554 -0.66937929 -0.21520667 4278190335
-5.4419351 -0.67558914 -0.20928033 4278190335
-5.2556648 -0.68204969 -0.20053555 4278190335
-5.0697165 -0.68843067 -0.1955151 4278190335
-4.8848476 -0.69461745 -0.1851636 4278190335
-4.7021656 -0.69776833 -0.17575286 4278190335
-4.5183454 -0.69782364 -0.16946098 4278190335
-4.3339286 -0.69226515 -0.16482817 4278190335
-4.1499577 -0.68208402 -0.15346016 4278190335
-3.9686432 -0.66752094 -0.14128174 4278190335
-3.7853336 -0.64657551 -0.13872287 4278190335
-3.602617 -0.62529838 -0.13561237 4278190335
-3.4197605 -0.59593731 -0.12560092 4278190335
-3.238627 -0.56646806 -0.11918185 4278190335
-3.0593674 -0.53270632 -0.110258 4278190335
-2.8814344 -0.50192374 -0.10050945 4278190335
-2.7028506 -0.4679032 -0.096058331 4278190335
-2.5248809 -0.43320206 -0.091848388 4278190335
-2.3484514 -0.39500386 -0.08337678 4278190335
-2.1728976 -0.35523519 -0.078803115 4278190335
-1.9988617 -0.31431836 -0.069794059 4278190335
-1.8241917 -0.26590589 -0.064813808 4278190335
-1.6505167 -0.21838173 -0.056537893 4278190335
-1.4772185 -0.16386789 -0.05043076 4278190335
-1.3050176 -0.10834137 -0.044713885 4278190335
-1.1330725 -0.047255374 -0.040628042 4278190335
-0.96269405 0.014111644 -0.033738151 4278190335
-0.79167801 0.07748197 -0.030729067 4278190335
-0.62213427 0.14000854 -0.022092434 4278190335
-0.45365816 0.20321843 -0.013632958 4278190335
-0.28438717 0.26868859 -0.011000207 4278190335
-0.11516222 0.33844388 -0.0075755673 4278190335
0.054846115 0.41364411 -0.0010217874 4278190335
0.22330433 0.49501756 0.0039325631 4278190335
0.38887036 0.58416039 0.0099729858 4278190335
0.55446887 0.67196876 0.018806644 4278190335
0.72037023 0.76754779 0.020724606 4278190335
0.88657564 0.86004531 0.024915995 4278190335
1.0520442 0.95581675 0.031509399 4278190335
1.2168067 1.0506667 0.038598571 4278190335
1.3832747 1.1532625 0.040771313 4278190335
1.5478663 1.2581928 0.042923167 4278190335
1.7093518 1.3691608 0.050824188 4278190335
1.867783 1.4835042 0.061039515 4278190335
2.0298901 1.6004639 0.061131898 4278190335
2.1897614 1.7205857 0.06388253 4278190335
2.348814 1.8419428 0.069178447 4278190335
2.504724 1.9649239 0.07333903 4278190335
2.6604416 2.0938518 0.080018722 4278190335
2.8109803 2.2317088 0.083402909 4278190335
2.9590824 2.374228 0.089829944 4278190335
3.1009667 2.5235834 0.096662574 4278190335
3.2395711 2.6753285 0.099299207 4278190335
3.3762469 2.8267019 0.1063122 4278190335
3.5140877 2.9803653 0.11114082 4278190335
3.649385 3.1304793 0.11522351 4278190335
3.7817445 3.2840416 0.12096647 4278190335
3.9074738 3.4409363 0.12324049 4278190335
4.0285654 3.6045246 0.12983067 4278190335
4.1414661 3.7725952 0.13417198 4278190335
4.2516618 3.9412217 0.13657151 4278190335
4.3600798 4.1088095 0.13580346 4278190335
4.4656992 4.2781034 0.14192037 4278190335
4.5683885 4.4461584 0.14612977 4278190335
4.6653519 4.6152568 0.14733641 4278190335
4.7577949 4.7881298 0.14913914 4278190335
4.848506 4.9588776 0.15293534 4278190335
4.9373255 5.1290174 0.15562768 4278190335
5.0223413 5.2957215 0.1604158 4278190335
5.1023922 5.465126 0.16823617 4278190335
5.1797123 5.6336813 0.1688869 4278190335
5.248548 5.8077998 0.16905439 4278190335
5.313611 5.9781351 0.17337884 4278190335
5.3747745 6.151823 0.17505758 4278190335
5.4325271 6.3228326 0.17657745 4278190335
5.4860263 6.4965959 0.17798617 4278190335
5.5368781 6.665709 0.18081897 4278190335
5.5826273 6.8383856 0.18557337 4278190335
5.6252718 7.0085716 0.18479805 4278190335
5.6665082 7.1808186 0.18534453 4278190335
5.7078147 7.3495603 0.18723834 4278190335
5.7478375 7.5198264 0.18777822 4278190335
5.7848163 7.6876779 0.18920666 4278190335
5.8198123 7.8577075 0.18953283 4278190335
5.8518019 8.026825 0.19172655 4278190335
5.8808508 8.1989584 0.19305855 4278190335
5.9061384 8.3699408 0.19555067 4278190335
5.9250126 8.5454769 0.19705394 4278190335
5.9415178 8.720994 0.19927503 4278190335
5.9530196 8.8998051 0.19973484 4278190335
5.9626918 9.0787649 0.20120309 4278190335
5.9733419 9.259057 0.20147663 4278190335
5.9787264 9.440155 0.20394088 4278190335
5.9817896 9.6231108 0.20483229 4278190335
5.9799552 9.8078461 0.20764942 4278190335
5.9740396 9.9954176 0.20736949 4278190335
5.9648547 10.184266 0.21139748 4278190335
5.9529643 10.374111 0.21238998 4278190335
5.9382939 10.565475 0.21479368 4278190335
5.9212613 10.758146 0.21533696 4278190335
5.8984909 10.953195 0.21870406 4278190335
5.8686142 11.14994 0.21853147 4278190335
5.832375 11.349744 0.22130245 4278190335
5.7915273 11.550143 0.22011818 4278190335
5.7474756 11.753428 0.22198232 4278190335
5.700089 11.956441 0.21933138 4278190335
5.6496801 12.161725 0.22059466 4278190335
5.5954633 12.367132 0.21649118 4278190335
5.5366282 12.575232 0.21843573 4278190335
5.4728441 12.782991 0.21505874 4278190335
5.4045672 12.993033 0.21510385 4278190335
5.3274961 13.202294 0.21174507 4278190335
5.2491155 13.413332 0.21073091 4278190335
5.161109 13.622745 0.20908168 4278190335
5.071147 13.83478 0.20624243 4278190335
4.9748483 14.045218 0.20077042 4278190335
4.8749743 14.257459 0.20061231 4278190335
4.7679605 14.467184 0.19761437 4278190335
4.6596961 14.67998 0.19226778 4278190335
4.5433402 14.890094 0.18475838 4278190335
4.4241138 15.101247 0.18467762 4278190335
4.2973413 15.307698 0.18404612 4278190335
4.168057 15.516738 0.1767187 4278190335
4.0314116 15.723718 0.16843872 4278190335
3.8923421 15.932411 0.16652292 4278190335
3.7486591 16.138315 0.16321172 4278190335
3.6020288 16.34483 0.15593892 4278190335
3.4518626 16.550102 0.1498953 4278190335
3.2998133 16.756788 0.14613494 4278190335
3.1456633 16.963703 0.13984418 4278190335
2.9896393 17.171537 0.13471141 4278190335
2.8345184 17.380157 0.12841232 4278190335
2.6778235 17.589878 0.12278901 4278190335
2.5207546 17.801151 0.11442104 4278190335
2.3613448 18.012486 0.11065165 4278190335
2.2024274 18.222195 0.10281631 4278190335
2.0419283 18.431683 0.098160438 4278190335
1.8839254 18.641623 0.093335204 4278190335
1.7258443 18.850424 0.087987572 4278190335
1.5680481 19.059301 0.084017642 4278190335
1.4063795 19.266396 0.077453375 4278190335
1.2333049 19.467113 0.06787806 4278190335
1.0565114 19.661438 0.064489037 4278190335
0.87812829 19.849861 0.059416838 4278190335
0.70036983 20.034895 0.051964615 4278190335
0.52771252 20.222649 0.047207557 4278190335
0.3528344 20.405115 0.039424688 4278190335
0.17552587 20.584942 0.028927345 4278190335
-0.0053015864 20.756802 0.025643064 4278190335
-0.18961354 20.921356 0.020731281 4278190335
-0.37177563 21.081512 0.013910982 4278190335
-0.54995447 21.239023 0.011900242 4278190335
-0.72249418 21.393885 0.0042742887 4278190335
-0.8945905 21.5487 -0.0015477302 4278190335
-1.0647522 21.698063 -0.0057014101 4278190335
-1.2417889 21.84124 -0.010646488 4278190335
-1.4138151 21.979321 -0.016889261 4278190335
-1.5925301 22.111378 -0.020651732 4278190335
-1.769546 22.239126 -0.025613803 4278190335
-1.9491658 22.368073 -0.033386812 4278190335
-2.1235933 22.498028 -0.03570126 4278190335
-2.2974725 22.628773 -0.042740189 4278190335
-2.4636931 22.759436 -0.045788728 4278190335
-2.6305473 22.88686 -0.049083114 4278190335
-2.7925963 23.0131 -0.053435363 4278190335
-2.9589491 23.131336 -0.060724806 4278190335
-3.1186705 23.248842 -0.060835961 4278190335
-3.2811015 23.361774 -0.063961193 4278190335
-3.4377604 23.475821 -0.069668837 4278190335
-3.5929563 23.589857 -0.081874326 4278190335
-3.7373571 23.708515 -0.078290917 4278190335
-3.8768458 23.831114 -0.07758145 4278190335
-4.0202622 23.948881 -0.084551893 4278190335
-4.1600261 24.067726 -0.091615416 4278190335
-4.2897687 24.191448 -0.090490535 4278190335
-4.4246287 24.307789 -0.092653409 4278190335
-4.5507846 24.427601 -0.095323823 4278190335
-4.6783276 24.546898 -0.099026814 4278190335
-4.8007102 24.666517 -0.099803604 4278190335
-4.926971 24.782694 -0.10767669 4278190335
-5.0497179 24.897692 -0.10599032 4278190335
-5.1719642 25.012047 -0.10792195 4278190335
-5.2886629 25.126091 -0.11215083 4278190335
-5.4017248 25.242556 -0.11794857 4278190335
-5.5127792 25.35557 -0.11840362 4278190335
-5.6254926 25.467073 -0.12324694 4278190335
-5.7389812 25.571514 -0.12427343 4278190335
-5.8559093 25.672249 -0.12757537 4278190335
-5.9711318 25.771713 -0.13024092 4278190335
-6.085619 25.871178 -0.13340645 4278190335
-6.1956344 25.97023 -0.13555022 4278190335
-6.301528 26.073471 -0.13727705 4278190335
-6.405025 26.175816 -0.1400497 4278190335
-6.5068755 26.280008 -0.14526598 4278190335
-6.6095095 26.381105 -0.14618671 4278190335
-6.7143846 26.479807 -0.15168537 4278190335
-6.8194075 26.57559 -0.15259744 4278190335
-6.9247766 26.669779 -0.15639345 4278190335
-7.02701 26.765711 -0.1586162 4278190335
-7.1284008 26.864975 -0.16250259 4278190335
-7.2298269 26.961308 -0.1633565 4278190335
-7.3311191 27.055124 -0.16360395 4278190335
-7.430675 27.147308 -0.16776735 4278190335
-7.529881 27.240715 -0.17225641 4278190335
-7.628056 27.336845 -0.17322119 4278190335
-7.7268105 27.43421 -0.17885931 4278190335
-7.8242903 27.530415 -0.17838041 4278190335
-7.9222355 27.62365 -0.17872249 4278190335
-8.0203104 27.716921 -0.18292993 4278190335
-8.1215553 27.807615 -0.18770365 4278190335
-8.2214642 27.897919 -0.18848091 4278190335
-8.320466 27.988665 -0.19001888 4278190335
-8.4171343 28.08013 -0.19342238 4278190335
-8.5134068 28.172358 -0.19698399 4278190335
-8.6096983 28.263557 -0.19727081 4278190335
-8.7078609 28.353132 -0.19902667 4278190335
-8.8039494 28.443045 -0.201667 4278190335
-8.8996296 28.534565 -0.20478122 4278190335
-8.9926977 28.62719 -0.20579626 4278190335
-9.0851336 28.721506 -0.20671357 4278190335
-9.1792488 28.813951 -0.21008563 4278190335
-9.2771244 28.903589 -0.21580361 4278190335
-9.3764534 28.99358 -0.21595719 4278190335
-9.4784679 29.082571 -0.22170699 4278190335
-9.5787954 29.173498 -0.22195165 4278190335
-9.6782579 29.267092 -0.22481501 4278190335
-9.7769842 29.362059 -0.22794089 4278190335
-9.8769407 29.457573 -0.23293981 4278190335
-9.9781361 29.551601 -0.23365925 4278190335
-10.080335 29.643734 -0.2360408 4278190335
-10.183186 29.737761 -0.23969395 4278190335
-10.28498 29.832045 -0.24377415 4278190335
-10.387849 29.926933 -0.24602634 4278190335
-10.490204 30.023415 -0.24915311 4278190335
-10.593632 30.121235 -0.25099924 4278190335
-10.69603 30.220055 -0.2532846 4278190335
-10.799877 30.319056 -0.25557664 4278190335
-10.900951 30.419399 -0.25745115 4278190335
-11.002724 30.521368 -0.25987405 4278190335
-11.101779 30.624418 -0.26191047 4278190335
-11.201036 30.728163 -0.26438108 4278190335
-11.299973 30.831736 -0.26777175 4278190335
-11.40127 30.934673 -0.27005193 4278190335
-11.505023 31.036976 -0.27504423 4278190335
-11.609303 31.139769 -0.27630076 4278190335
-11.715944 31.240053 -0.27939525 4278190335
-11.821715 31.342442 -0.28131172 4278190335
-11.926891 31.444777 -0.28244692 4278190335
-12.032722 31.547884 -0.28617787 4278190335
-12.13891 31.651346 -0.29035389 4278190335
-12.243987 31.757341 -0.29198879 4278190335
-12.348007 31.864201 -0.29382929 4278190335
-12.452559 31.971445 -0.29729548 4278190335
-12.556848 32.079617 -0.30117047 4278190335
-12.660823 32.189285 -0.30311534 4278190335
-12.765732 32.300632 -0.30665052 4278190335
-12.869362 32.412949 -0.30953562 4278190335
-12.97503 32.525002 -0.31321728 4278190335
-13.082517 32.637455 -0.3154299 4278190335
-13.194449 32.747387 -0.32056603 4278190335
-13.30538 32.860374 -0.32192615 4278190335
-13.417104 32.972332 -0.3234449 4278190335
-13.527809 33.088394 -0.32783228 4278190335
-13.637945 33.205856 -0.33178362 4278190335
-13.749127 33.324421 -0.33385864 4278190335
-13.862973 33.440014 -0.33549267 4278190335
-13.979778 33.556057 -0.33910435 4278190335
-14.100929 33.668118 -0.3430036 4278190335
-14.224313 33.782578 -0.34677908 4278190335
-14.348246 33.897823 -0.35359609 4278190335
-14.470455 34.017685 -0.35490152 4278190335
-14.591331 34.139854 -0.35846132 4278190335
-14.713326 34.265091 -0.36334673 4278190335
-14.836617 34.388504 -0.36739808 4278190335
-14.960536 34.512543 -0.37080607 4278190335
-15.086742 34.634937 -0.37325343 4278190335
-15.214808 34.7607 -0.37791473 4278190335
-15.343677 34.885052 -0.38026199 4278190335
-15.470886 35.013668 -0.38642731 4278190335
-15.596713 35.144676 -0.390387 4278190335
-15.728154 35.275848 -0.39493814 4278190335
-15.861624 35.405178 -0.40260023 4278190335
-15.995086 35.537659 -0.40632185 4278190335
-16.127981 35.670303 -0.4097847 4278190335
-16.260658 35.806057 -0.41447434 4278190335
-16.392181 35.942947 -0.41726536 4278190335
-16.524855 36.083591 -0.4218812 4278190335
-16.658882 36.222942 -0.42578018 4278190335
-16.79574 36.364613 -0.43092623 4278190335
-16.933323 36.505531 -0.4387497 4278190335
-17.073225 36.648281 -0.44026622 4278190335
-17.210934 36.792328 -0.44356069 4278190335
-17.349136 36.93866 -0.44730383 4278190335
-17.487036 37.085133 -0.44805634 4278190335
-17.629471 37.231728 -0.45565751 4278190335
-17.774208 37.376343 -0.46227238 4278190335
-17.922636 37.520943 -0.4659861 4278190335
-18.069431 37.667667 -0.46911851 4278190335
-18.214563 37.817867 -0.47621986 4278190335
-18.356005 37.972878 -0.48024115 4278190335
-18.500408 38.127163 -0.48527157 4278190335
-18.646328 38.281815 -0.49045467 4278190335
-18.79682 38.435009 -0.49704826 4278190335
-18.950712 38.585285 -0.50576472 4278190335
-19.102247 38.736042 -0.50825548 4278190335
-19.250154 38.889053 -0.50950241 4278190335
-19.397446 39.04335 -0.51776564 4278190335
-19.541943 39.19973 -0.52492899 4278190335
-19.68573 39.356213 -0.52795041 4278190335
-19.829384 39.509766 -0.53034884 4278190335
-19.973673 39.661732 -0.53760988 4278190335
-20.119413 39.808247 -0.54411632 4278190335
-20.263744 39.954121 -0.54828227 4278190335
-20.407539 40.098984 -0.55285239 4278190335
-20.550848 40.244724 -0.55990005 4278190335
-20.692356 40.391281 -0.56811523 4278190335
-20.831844 40.538807 -0.57055211 4278190335
-20.968821 40.686066 -0.57512927 4278190335
-21.104897 40.83213 -0.5788489 4278190335
-21.240103 40.975948 -0.58100319 4278190335
-21.375816 41.117493 -0.58879495 4278190335
-21.514433 41.256634 -0.59655279 4278190335
-21.650646 41.396492 -0.59990656 4278190335
-21.786104 41.539833 -0.60607952 4278190335
-21.920807 41.685055 -0.6107291 4278190335
-22.053986 41.830544 -0.61417943 4278190335
-22.184647 41.976688 -0.62262082 4278190335
-22.319113 42.120152 -0.63117015 4278190335
-22.452896 42.264309 -0.63291425 4278190335
-22.5886 42.405418 -0.63631737 4278190335
-22.726162 42.546734 -0.64451224 4278190335
-22.863888 42.689091 -0.6500206 4278190335
-22.997526 42.834518 -0.65504879 4278190335
-23.128717 42.983101 -0.66044438 4278190335
-23.261843 43.132515 -0.66565156 4278190335
-23.394672 43.282623 -0.67038518 4278190335
-23.527437 43.430492 -0.67544997 4278190335
-23.664438 43.575729 -0.67953438 4278190335
-23.801935 43.721409 -0.68612891 4278190335
-23.941624 43.86557 -0.69248235 4278190335
-24.078766 44.010643 -0.69732463 4278190335
-24.21414 44.158787 -0.70236117 4278190335
-24.349236 44.308002 -0.70642954 4278190335
-24.481071 44.458748 -0.71162617 4278190335
-24.613546 44.609749 -0.71482116 4278190335
-24.746782 44.757828 -0.72110665 4278190335
-24.881104 44.904648 -0.72582346 4278190335
-25.016024 45.04744 -0.73330277 4278190335
-25.149599 45.188908 -0.73650229 4278190335
-25.280718 45.331242 -0.73839313 4278190335
-25.410547 45.474865 -0.7436018 4278190335
-25.538286 45.61974 -0.7460106 4278190335
-25.666054 45.763741 -0.75280929 4278190335
-25.794767 45.907658 -0.75734794 4278190335
-25.925346 46.047737 -0.76212257 4278190335
-26.055233 46.189537 -0.76706475 4278190335
-26.183636 46.329472 -0.77247167 4278190335
-26.312494 46.470646 -0.77818096 4278190335
-26.44018 46.610241 -0.78190613 4278190335
-26.568459 46.750027 -0.78613383 4278190335
-26.697844 46.886604 -0.79184353 4278190335
-26.826946 47.022755 -0.79736006 4278190335
-26.952614 47.15929 -0.79935509 4278190335
-27.074186 47.298344 -0.7998507 4278190335
-27.194427 47.438961 -0.80626708 4278190335
-27.313488 47.579456 -0.81269902 4278190335
-27.434822 47.718033 -0.81601852 4278190335
-27.559124 47.855824 -0.82520384 4278190335
-27.68251 47.99564 -0.82761967 4278190335
-27.805799 48.13525 -0.83571506 4278190335
-27.928175 48.275326 -0.83913058 4278190335
-28.048149 48.41526 -0.84194589 4278190335
-28.167372 48.553284 -0.84627366 4278190335
-28.287466 48.688087 -0.84494585 4278190335
-28.406702 48.82534 -0.85368919 4278190335
-28.524092 48.961525 -0.85997128 4278190335
-28.637833 49.099537 -0.86159068 4278190335
-28.744875 49.240326 -0.86104715 4278190335
-28.85141 49.382511 -0.86703092 4278190335
-28.959009 49.523193 -0.87134039 4278190335
-29.066584 49.663849 -0.87528545 4278190335
-29.179115 49.800636 -0.88275939 4278190335
-29.289501 49.937992 -0.88419211 4278190335
-29.397501 50.075134 -0.88560665 4278190335
-29.502035 50.213638 -0.8904441 4278190335
-29.60519 50.353668 -0.89394045 4278190335
-29.708881 50.493748 -0.89686596 4278190335
-29.816153 50.633171 -0.9018302 4278190335
-29.923656 50.772247 -0.90275347 4278190335
-30.031303 50.909824 -0.90529573 4278190335
-30.13604 51.050766 -0.90920556 4278190335
-30.237608 51.195736 -0.91395181 4278190335
-30.339073 51.340401 -0.91447479 4278190335
-30.442461 51.484543 -0.91509402 4278190335
-30.542923 51.630985 -0.9187814 4278190335
-30.64538 51.777344 -0.92336714 4278190335
-30.748934 51.925694 -0.92527181 4278190335
-30.852043 52.075462 -0.93242049 4278190335
-30.953129 52.22715 -0.93123567 4278190335
-31.051565 52.381069 -0.93000346 4278190335
-31.15123 52.537457 -0.93459237 4278190335
-31.25387 52.690289 -0.93614906 4278190335
-31.35692 52.844181 -0.93925261 4278190335
-31.460569 52.998295 -0.94442689 4278190335
-31.563677 53.155899 -0.94568729 4278190335
-31.661579 53.318253 -0.95097327 4278190335
-31.757257 53.483948 -0.9509992 4278190335
-31.850824 53.650341 -0.95235521 4278190335
-31.947029 53.817204 -0.95557392 4278190335
-32.047451 53.980862 -0.9610194 4278190335
-32.144611 54.147938 -0.96203905 4278190335
-32.239967 54.316502 -0.96361715 4278190335
-32.333572 54.488365 -0.96744019 4278190335
-32.425167 54.662426 -0.97144437 4278190335
-32.513874 54.838615 -0.97262102 4278190335
-32.60387 55.013916 -0.97281104 4278190335
-32.691319 55.192402 -0.9775849 4278190335
-32.778725 55.370766 -0.9798364 4278190335
-32.863056 55.551891 -0.9820286 4278190335
-32.943752 55.736553 -0.98289484 4278190335
-33.021717 55.923252 -0.9860158 4278190335
-33.098019 56.11021 -0.98643476 4278190335
-33.171402 56.299732 -0.98922783 4278190335
-33.245331 56.488121 -0.99115384 4278190335
-33.316261 56.67897 -0.99190551 4278190335
-33.383034 56.872623 -0.99383193 4278190335
-33.447117 57.067986 -0.99380523 4278190335
-33.506405 57.265976 -0.99489516 4278190335
-33.56464 57.465168 -0.99510139 4278190335
-33.622227 57.664104 -0.99638855 4278190335
-33.677025 57.865761 -0.99694067 4278190335
-33.728737 58.069004 -0.99866676 4278190335
-33.777866 58.274368 -1.0007724 4278190335
-33.824093 58.48185 -1.003746 4278190335
-33.86689 58.692215 -1.0036687 4278190335
-33.910343 58.900703 -1.0042895 4278190335
-33.953835 59.11068 -1.0047311 4278190335
-33.998631 59.319065 -1.0058246 4278190335
-34.040714 59.528755 -1.004734 4278190335
-34.078987 59.737881 -1.0013599 4278190335
-34.111336 59.949062 -1.0023634 4278190335
-34.138588 60.162071 -1.0027955 4278190335
-34.164967 60.374928 -1.0010002 4278190335
-34.189255 60.586128 -1.0005777 4278190335
-34.212276 60.79586 -0.9998737 4278190335
-34.237648 61.003086 -0.99842948 4278190335
-34.259987 61.210407 -0.99961978 4278190335
-34.276684 61.419308 -1.0020151 4278190335
-34.291023 61.627403 -0.99921119 4278190335
-34.300678 61.834892 -0.99494791 4278190335
-34.308102 62.041515 -0.99895632 4278190335
-34.315536 62.24876 -1.0037546 4278190335
-34.31929 62.455315 -0.99978274 4278190335
-34.31889 62.662258 -0.99872589 4278190335
-34.318783 62.866676 -0.99904221 4278190335
-34.317703 63.070992 -0.99673593 4278190335
-34.318581 63.272232 -0.99603623 4278190335
-34.318851 63.475842 -0.99978995 4278190335
-34.317822 63.679127 -0.99709898 4278190335
-34.304745 63.884762 -1.001597 4278190335
-34.291306 64.086983 -0.99686086 4278190335
-34.268093 64.29071 -0.99513644 4278190335
-34.243286 64.491798 -0.99178147 4278190335
-34.219273 64.690208 -0.98290259 4278190335
-34.198235 64.887718 -0.98890805 4278190335
-34.177811 65.085419 -0.98690677 4278190335
-34.154823 65.281418 -0.98492932 4278190335
-34.121433 65.477234 -0.98215222 4278190335
-34.087006 65.671974 -0.97986025 4278190335
-34.040325 65.866188 -0.9764424 4278190335
-33.992359 66.057983 -0.97352231 4278190335
-33.940121 66.247734 -0.96861279 4278190335
-33.883625 66.434677 -0.96393973 4278190335
-33.819321 66.62043 -0.95551091 4278190335
-33.751823 66.804214 -0.95282716 4278190335
-33.674957 66.987175 -0.95091891 4278190335
-33.597248 67.166817 -0.94348836 4278190335
-33.523823 67.348122 -0.94215256 4278190335
-33.443085 67.527039 -0.93575597 4278190335
-33.363003 67.706459 -0.93464679 4278190335
-33.278191 67.883324 -0.92438817 4278190335
-33.182018 68.057137 -0.91612625 4278190335
-33.085823 68.228081 -0.9108538 4278190335
-32.985867 68.396713 -0.9017992 4278190335
-32.881424 68.563477 -0.899728 4278190335
-32.774685 68.72908 -0.89523494 4278190335
-32.665936 68.891258 -0.88549173 4278190335
-32.548103 69.04969 -0.87647837 4278190335
-32.429924 69.20562 -0.87012595 4278190335
-32.306267 69.358513 -0.86220443 4278190335
-32.185612 69.508415 -0.85307592 4278190335
-32.063511 69.65789 -0.84331107 4278190335
-31.945648 69.804092 -0.83714056 4278190335
-31.819378 69.947479 -0.82755399 4278190335
-31.694719 70.084908 -0.82028168 4278190335
-31.559803 70.217865 -0.81060588 4278190335
-31.42935 70.349396 -0.80211359 4278190335
-31.29294 70.47934 -0.79698694 4278190335
-31.160332 70.606857 -0.78650451 4278190335
-31.024607 70.732315 -0.77868921 4278190335
-30.892 70.855423 -0.77005464 4278190335
-30.752123 70.975121 -0.76259923 4278190335
-30.613312 71.091469 -0.75334227 4278190335
-30.469578 71.205078 -0.74509704 4278190335
-30.326788 71.313904 -0.73691154 4278190335
-30.179831 71.421486 -0.72798461 4278190335
-30.034409 71.527351 -0.72000527 4278190335
-29.886034 71.63105 -0.71112138 4278190335
-29.736658 71.731232 -0.70280015 4278190335
-29.585274 71.83007 -0.69461858 4278190335
-29.432369 71.925369 -0.6853171 4278190335
-29.276045 72.016579 -0.67554849 4278190335
-29.11902 72.105362 -0.66731811 4278190335
-28.960512 72.19133 -0.65891957 4278190335
-28.800344 72.272308 -0.64963549 4278190335
-28.641169 72.352592 -0.63836461 4278190335
-28.480171 72.431274 -0.63266158 4278190335
-28.318571 72.509422 -0.62591767 4278190335
-28.156815 72.585915 -0.61727315 4278190335
-27.993345 72.658539 -0.60844862 4278190335
-27.829348 72.728615 -0.6013934 4278190335
-27.662905 72.796089 -0.59214902 4278190335
-27.495384 72.863045 -0.58700365 4278190335
-27.325415 72.926788 -0.57998389 4278190335
-27.15202 72.991837 -0.57189816 4278190335
-26.978947 73.051147 -0.56346136 4278190335
-26.804234 73.11113 -0.5572983 4278190335
-26.628252 73.168777 -0.54959512 4278190335
-26.4508 73.225304 -0.543562 4278190335
-26.268843 73.276062 -0.53562462 4278190335
-26.083822 73.325462 -0.52857268 4278190335
-25.895405 73.371346 -0.5219487 4278190335
-25.70476 73.415451 -0.51346081 4278190335
-25.513035 73.455002 -0.50332671 4278190335
-25.319109 73.497261 -0.49725589 4278190335
-25.123093 73.533119 -0.48950812 4278190335
-24.92429 73.569298 -0.4822154 4278190335
-24.722223 73.596436 -0.4745141 4278190335
-24.5173 73.62326 -0.46660388 4278190335
-24.31171 73.645218 -0.45818517 4278190335
-24.101885 73.665535 -0.45246717 4278190335
-23.890913 73.681633 -0.44768843 4278190335
-23.67901 73.69239 -0.43820113 4278190335
-23.468742 73.697037 -0.42971537 4278190335
-23.256361 73.691887 -0.42430446 4278190335
-23.047611 73.688156 -0.41535228 4278190335
-22.837175 73.67617 -0.41066334 4278190335
-22.629324 73.664703 -0.40194699 4278190335
-22.419611 73.645134 -0.39691287 4278190335
-22.21147 73.620827 -0.38879162 4278190335
-22.002188 73.590858 -0.38454044 4278190335
-21.797085 73.558708 -0.37417778 4278190335
-21.590603 73.521744 -0.37244609 4278190335
-21.385283 73.480537 -0.36825961 4278190335
-21.178936 73.431297 -0.36133379 4278190335
-20.975128 73.376305 -0.35326409 4278190335
-20.773209 73.315605 -0.35116464 4278190335
-20.57254 73.250793 -0.34350634 4278190335
-20.372368 73.184372 -0.3392975 4278190335
-20.1738 73.119843 -0.33061743 4278190335
-19.977495 73.051941 -0.32656005 4278190335
-19.782568 72.975891 -0.31510961 4278190335
-19.58987 72.893791 -0.31219891 4278190335
-19.398338 72.798393 -0.30478925 4278190335
-19.208138 72.70359 -0.30000517 4278190335
-19.020025 72.603165 -0.29361507 4278190335
-18.83465 72.503479 -0.28988853 4278190335
-18.648005 72.399979 -0.28521559 4278190335
-18.463326 72.295311 -0.2798095 4278190335
-18.278538 72.187103 -0.27461144 4278190335
-18.097858 72.079811 -0.26891139 4278190335
-17.920109 71.962891 -0.25826159 4278190335
-17.74346 71.844086 -0.25644514 4278190335
-17.567526 71.71489 -0.25433564 4278190335
-17.393648 71.584877 -0.2467808 4278190335
-17.223925 71.448685 -0.24063069 4278190335
-17.060137 71.310883 -0.23390825 4278190335
-16.902691 71.16362 -0.22059436 4278190335
-16.745537 71.015953 -0.22194076 4278190335
-16.590065 70.867172 -0.2175646 4278190335
-16.438408 70.716667 -0.210825 4278190335
-16.289545 70.566711 -0.20264523 4278190335
-16.1429 70.415016 -0.19875185 4278190335
-16.000711 70.256401 -0.19302766 4278190335
-15.863948 70.095238 -0.18824871 4278190335
-15.733072 69.927849 -0.18237616 4278190335
-15.605123 69.761528 -0.17846465 4278190335
-15.478643 69.594063 -0.17498702 4278190335
-15.355659 69.426544 -0.1696537 4278190335
-15.236354 69.255287 -0.16572867 4278190335
-15.118922 69.086708 -0.16231337 4278190335
-15.004168 68.91375 -0.15914556 4278190335
-14.892328 68.738701 -0.15764558 4278190335
-14.785922 68.559845 -0.15618436 4278190335
-14.682471 68.382874 -0.15067399 4278190335
-14.582173 68.206749 -0.14019315 4278190335
-14.482521 68.031723 -0.14331707 4278190335
-14.385723 67.852425 -0.14252664 4278190335
-14.290487 67.676247 -0.1375581 4278190335
-14.198462 67.497345 -0.12936646 4278190335
-14.107693 67.320396 -0.13031457 4278190335
-14.02104 67.139687 -0.12582691 4278190335
-13.933499 66.962402 -0.1244643 4278190335
-13.848978 66.781693 -0.12135161 4278190335
-13.764338 66.601677 -0.12168524 4278190335
-13.681318 66.419052 -0.12172443 4278190335
-13.598639 66.237831 -0.1184584 4278190335
-13.521618 66.053497 -0.11229061 4278190335
-13.446659 65.868118 -0.11446178 4278190335
-13.373629 65.68158 -0.11170311 4278190335
-13.300692 65.493362 -0.11100658 4278190335
-13.227543 65.30632 -0.10819619 4278190335
-13.153045 65.119362 -0.10923342 4278190335
-13.07818 64.932289 -0.10861274 4278190335
-13.000379 64.747047 -0.10635914 4278190335
-12.924526 64.559029 -0.10306451 4278190335
-12.84526 64.372185 -0.1037721 4278190335
-12.771004 64.182205 -0.10070772 4278190335
-12.696909 63.992535 -0.10147922 4278190335
-12.625867 63.799171 -0.10079492 4278190335
-12.554477 63.604836 -0.099389575 4278190335
-12.484794 63.408665 -0.09639398 4278190335
-12.414489 63.211594 -0.097473025 4278190335
-12.345428 63.012341 -0.097099327 4278190335
-12.278187 62.810863 -0.096844427 4278190335
-12.214484 62.607822 -0.09418349 4278190335
-12.151138 62.402725 -0.096215285 4278190335
-12.091192 62.195316 -0.095378548 4278190335
-12.033706 61.985489 -0.095939152 4278190335
-11.977107 61.776257 -0.09321627 4278190335
-11.92328 61.56448 -0.094975658 4278190335
-11.870557 61.35128 -0.094875358 4278190335
-11.822312 61.13409 -0.095117941 4278190335
-11.779215 60.915894 -0.092693105 4278190335
-11.741401 60.694962 -0.094795853 4278190335
-11.707921 60.472691 -0.092930727 4278190335
-11.674253 60.249084 -0.095037863 4278190335
-11.642577 60.026539 -0.094336279 4278190335
-11.610723 59.80505 -0.097849838 4278190335
-11.580836 59.583431 -0.099133387 4278190335
-11.552494 59.36293 -0.10040359 4278190335
-11.528019 59.143417 -0.098558068 4278190335
-11.502605 58.926872 -0.10322435 4278190335
-11.485397 58.709538 -0.10242539 4278190335
-11.469121 58.495007 -0.10688823 4278190335
-11.459085 58.280365 -0.10621604 4278190335
-11.449149 58.069088 -0.10788248 4278190335
-11.440286 57.858986 -0.10327647 4278190335
